# 3D point list with one line of data per point:
#   POINT3D_ID, X, Y, Z, R, G, B, ERROR, TRACK[] as (IMAGE_ID, POINT2D_IDX)
# Number of points: 343, mean track length: 9.9673732718894001
6113 2.0704153196989585 3.8027369249195608 4.5445271668623271 105 92 76 1.3330903890333798 197 409 198 406 199 374 200 404
6116 3.3932013377037373 3.3497969568156845 5.8122422203723882 145 133 109 0.21896422961638373 193 440 194 476 197 417 185 284
6117 -2.1168170222088474 6.4504709312290283 4.2550354607691983 169 155 128 0.15175192767759002 193 895 194 585 197 426
6118 -1.2684840503509029 5.974552116137823 4.532066266829796 162 150 124 0.45672106307560328 192 517 197 437 191 508 190 450
6119 -0.625454055808083 5.6731808956463219 4.6938580230362614 163 151 125 0.29557882253730133 188 456 192 524 193 877 194 548 196 818 197 439 190 451 191 515 198 423 199 391 181 611 200 427
6120 0.23831213184683431 5.0456144037932624 5.0181028668443712 164 150 124 0.29312132054965023 188 433 196 461 197 444 189 455 199 345
6121 5.1088265522313687 2.6183397797968144 6.0362329302878175 100 85 62 1.1638498722659145 194 923 195 832 197 463 196 482
6122 -2.3135133240893202 6.705624901687778 4.0005943291699833 166 152 126 0.22717259196409417 193 567 194 581 196 488 197 468 192 563 190 505 191 577 198 441
6123 -1.0799068072821314 6.1504158065167154 4.4190700614145184 169 155 128 0.18802399310959084 191 540 197 472 198 450 200 453
6124 -0.66202385525637986 5.7609254322062968 4.5953775692521557 156 142 116 0.30703165200306703 174 724 197 476 173 871 198 421
6125 2.1275503370056681 4.2728309658751371 3.8659582387843536 118 107 90 0.22448809574737028 183 350 197 498 198 473
6127 5.081865263240017 2.8967613371598162 5.7512660471164843 166 151 128 0.17122422764259249 192 459 197 515 187 336 183 261
6128 -2.1486344458176529 6.8034038016868887 4.0344346067308487 165 151 124 0.99867366831589244 190 511 197 517 189 564 198 447 192 601 194 623 193 573 191 580 187 470 199 759 200 778
6129 -1.8993191409670056 6.6416725917281809 4.1379388324845454 172 160 136 0.31085563176345249 192 886 193 576 194 627 197 519
6130 -1.4657241943768577 6.5313838005522484 4.1474034463995251 162 150 124 0.57081946397948091 190 514 191 582 192 602 194 628 196 530 197 520 189 565 198 494 199 415 180 493 181 642 182 669
6131 -1.2564349969542565 6.3349536258021786 4.3447461552951614 172 158 131 0.16862002627623385 191 884 194 630 197 522
6132 -1.2575568615798158 6.334768185120951 4.3462025090552139 172 158 131 0.24862263415534266 193 579 194 629 197 523
6133 -1.0533683174789774 6.2538370498942655 4.4985978053256606 168 156 130 0.43340367575309008 193 582 194 633 195 569 196 537 197 525 198 451 199 422
6134 -1.0649779384717317 6.6230202286718809 4.061277007035172 169 157 132 0.30001088694709782 193 645 194 685 195 634 196 608 197 568 198 533 190 563 200 490
6135 2.0000003541302638 5.1160340060533409 5.130001426683787 93 78 57 0.67154676699089821 194 1007 197 587 193 941
6136 2.2526774496338051 4.6719780042570225 4.3654300051913397 87 75 59 0.18106236013152019 190 495 197 598 175 359 176 328
6137 4.8292860245830562 3.469472052706938 5.3595251138202507 149 134 111 0.18102090959150136 194 617 196 593 197 605 195 625
6138 -1.7954380800445742 7.1533029595294551 3.6369789998618853 171 157 131 0.43628582905510643 193 968 195 947 196 894 197 611 194 1035 198 561 199 503
6139 -0.79218611489762458 6.6533789327351416 4.0806321075633534 163 148 125 0.45700058892735773 193 646 195 669 196 609 197 623 198 564
6140 -0.051802025331320042 6.1758959768863004 4.185638319658433 165 151 124 0.43996661883352578 194 1019 195 931 196 897 197 628 198 540 200 835
6141 1.797517453629849 5.3686730537034455 4.4336629260448674 162 150 124 0.39784800172043255 160 686 188 535 197 637 200 605
6142 1.8549423146450392 5.2696798367403384 4.3336945268812634 168 154 128 0.23099325683737423 192 915 194 699 195 653 196 620 197 639 199 564
6143 2.0953125869138187 5.0651697798915336 4.9396684271920748 86 71 48 0.80865532171893284 194 703 197 640 198 581
6144 -0.46961098741283824 6.6399504364442272 4.0514627570265409 163 149 123 0.62529165945870169 192 647 193 676 194 750 195 950 196 637 197 645 191 625 198 565
6145 0.14695425778406235 6.4083655926303607 3.9328433508868907 172 156 130 0.44841616357237624 191 642 194 752 197 648 192 658 188 556 190 820 198 860 199 586 200 853
6146 -1.50517838748415 7.3383289149956799 3.2996173291913626 162 148 121 0.53831156095527555 193 994 194 759 195 686 196 925 197 669 198 856 199 580 200 577
6147 -1.50517838748415 7.3383289149956799 3.2996173291913626 162 148 121 0.53831156095527555 193 993 194 758 195 687 196 926 197 670 198 857 199 581 200 578
6148 -0.62316016417980236 6.9662610969214676 3.6789849505879113 163 151 127 0.42260557049494296 192 669 195 690 196 658 197 674 198 593 199 583
6149 4.0524872031925678 4.5478164565342256 4.7582589258131254 148 133 110 0.33154671895292509 194 1058 197 678 198 615 199 620 200 651
6150 1.876832088518164 2.6813057168265897 2.5007123887675138 90 88 89 0.81742090144930357 193 750 197 730 191 707 192 718 198 676
6151 1.3610245557042069 3.1369874949921583 2.6899072919773026 0 0 0 1.8700713651825853 192 220 195 759 196 727 197 743
6153 -1.5989756222823355 5.0559498762098274 5.407757675495465 164 150 124 0.21700156066172874 193 801 194 866 197 772 198 708 199 687
6154 1.4290982671424743 3.5107209981818799 3.5497727780152784 0 0 0 0.66249144209133171 159 1133 160 1244 157 900 162 1251
6156 -2.3777024121023147 6.1680508811330457 4.5441117477023862 166 152 126 0.71839296697455202 189 780 196 784 197 803 198 735 199 705
6157 -2.0529170740791631 6.2339535203643743 4.7519255115427352 190 178 152 0.46140809143812617 193 876 194 954 196 449 197 819 198 736 199 722
6159 -1.32170609822887 6.4127851053379583 4.2317461499597373 166 152 127 0.43103087313426214 193 577 194 1002 195 888 196 857 197 872 198 496 199 418 200 451
6160 -1.32170609822887 6.4127851053379583 4.2317461499597373 166 152 127 0.43103087313426214 193 578 194 1003 195 889 196 858 197 873 198 495 199 417 200 450
6162 -1.5311957062220163 6.8807278437111492 3.6601461289607156 163 150 124 0.45397071225931995 193 1114 194 1195 196 895 197 890 195 926 198 826
6163 -1.2165120353818957 6.7071282271730901 3.8444498260985096 166 154 128 0.53299415761512536 193 644 194 721 195 633 196 896 197 891 198 828 199 515 200 808
6164 -1.4428910814967926 7.2665973516840117 3.3819429196564874 168 153 130 0.4504853752948173 193 978 194 1059 195 960 196 657 197 925 198 858 199 850 200 579
6165 -0.97328672579222886 6.9978241010025686 3.7332647090110593 166 154 130 0.36197541814679191 191 638 193 979 194 1050 196 634 197 926
6166 4.9380686290933582 4.1825163527486486 4.7815983571779057 107 92 69 0.38834930481619145 159 295 197 951 179 302 150 140 149 135 151 148
6167 -5.9240255886030537 4.196486029947426 6.842167337303815 160 148 124 0.38853537770666557 190 845 193 1013 194 1076 196 950 197 961 198 900 199 884 200 659
6168 1.3906061579586135 3.0678531515218395 2.7278609534280602 94 86 75 1.6816654545901784 193 1024 196 958 197 970 198 1005 199 896 200 918
6171 4.3063407667618021 2.6747146998712013 6.1827367998697786 150 135 112 0.2421362449217149 157 517 197 1004 155 358 198 953 193 1053 200 964
6172 4.3686928710015813 3.3104873980560603 5.6110020447278321 149 135 111 0.59338674548343873 189 761 191 827 197 1022 190 724 198 821 187 793 199 806 200 828 184 532
6173 -2.1793104226982773 6.8012175112980193 4.0272939075855252 188 174 148 0.46622149373202265 193 1096 194 1174 195 886 197 1026 198 965 199 758
6174 -2.1793104226982773 6.8012175112980193 4.0272939075855252 188 174 148 0.46622149373202265 193 1095 194 1175 197 1027 195 887 198 964 199 757
6175 -0.26382462848516558 6.9091244225330115 3.628912196570016 167 155 129 0.46401533476835138 194 1283 195 1151 196 1042 197 1054 196 1122 199 978
6177 1.6082892065256125 3.2932570746825238 2.7634543969165852 61 60 56 0.62221398093440261 193 1152 196 1069 197 1085 200 1056 199 1013 180 630
6178 2.2295920350367675 3.2785051527522358 3.3852701593792305 71 55 39 1.274550659777244 194 873 196 329 197 1088
6180 -4.5423072259012249 4.977323167816925 6.0332342898875337 164 150 124 0.90177503031460648 189 1084 190 1060 191 1145 193 1249 197 1136 184 819
6181 1.4568315057311354 3.1090986945367809 2.6343237190271132 71 63 50 0.88911515476709724 193 1219 194 1287 197 1139 198 1075
6183 0.95716895922648371 6.1529536871062298 3.946736901862161 167 153 127 0.27253368373425835 189 1078 190 1058 197 1156 188 1031 187 953
6185 2.1839376892804272 3.5760502763955788 3.4920084298896108 55 49 41 1.5504541934907625 189 1016 190 991 189 915 191 980 192 988 193 1048 188 953 187 881 184 516 195 1114
6186 5.0811240404530027 3.6446267242006218 5.185644952706336 138 125 102 0.48312732304167305 191 575 192 597 193 614 195 659 197 664 139 73 140 99 163 336 167 386 168 1008 162 308 160 208 171 523 159 222 135 95 136 100 158 143 174 636 154 288 181 582 189 818 196 625 198 602 199 598 200 646 186 609 182 605 183 607 180 427 179 462 178 385 177 203 176 253
6187 3.7973511512181672 3.3471030146310632 5.7281774342674643 146 131 106 0.56756172677132821 161 1158 181 699 188 870 197 834 191 816 195 851 196 811 200 804
6190 2.2663058594703172 3.6975159481961541 3.5994880912561307 44 36 24 0.57809469199983698 188 961 193 1171 182 748 183 551 192 999 187 885 185 844
6191 1.4049094220651668 3.3376961390781239 2.9549087231322964 125 112 95 2.0571699283672702 193 274 197 254
6192 1.3446275885247245 3.1497850133681209 2.8066754580702491 55 42 25 0.54971777227892837 196 1066 197 973 198 913 200 188
6193 -6.1830817250490764 3.2017765942119865 7.7953101499683966 159 144 121 0.37500293332021295 192 684 194 778 196 676 197 5 198 3
6194 -4.5486816357624287 2.2366517053709005 8.5561861293951331 183 165 143 0.1418458659960237 191 17 192 19 198 6
6195 -6.0590801676488759 3.6986219725324521 6.9302322247008634 196 181 158 0.5528226214224492 192 688 193 714 194 785 195 714 196 675 197 691 198 19 199 627 200 654
6196 -4.3537000916496043 2.1128584146907285 9.8682471495178792 186 174 148 2.2404391473585896 183 34 198 23
6197 1.1881045031926682 0.21883935206684535 8.8517164629938119 177 162 141 0.26495798247641505 194 26 196 678 198 28 199 19 200 26 195 35
6198 1.1906451719938949 0.22128761201528363 8.8373984549246121 177 162 141 0.25155342332207936 194 25 196 679 198 29 199 20 200 27
6199 -3.986404943298647 4.0762408090921083 6.7200819556704037 165 151 125 0.3209598918884809 193 104 194 128 195 110 196 82 197 96 198 72 187 117 199 62 185 517 186 100
6200 2.0416530881007544 1.0674759352418766 8.0019913706270387 154 139 116 0.3531337606244116 191 61 198 91 189 615 190 58 192 80 194 109 193 90 199 83
6201 -3.2341890355580514 4.3599506208505119 6.2840297567041965 169 152 130 0.1226846219475205 190 185 198 126 200 126
6202 -3.2341890355580514 4.3599506208505119 6.2840297567041965 169 152 130 0.1226846219475205 190 184 198 127 200 125
6203 1.4674643240808429 3.2337932661137292 2.8322514657811562 76 69 59 0.89890329555569526 196 205 197 210 198 191 199 204 200 225
6204 1.8745888800634365 2.9005858776303031 2.4515213992216105 71 70 68 0.24118176177028353 196 174 197 185 198 192
6205 2.0391604683004618 2.9575265880037227 2.1525321164610824 84 80 77 0.51543368027170999 189 215 199 171 198 195
6206 2.6786805156929341 2.2181807464250172 6.9524459916536685 155 143 118 0.34626148425280329 193 242 198 200 188 157 192 227 189 184 187 149
6208 -2.7605608466660878 5.1537068754943602 5.539354524851209 195 181 155 0.26679397890479351 194 854 195 260 196 232 197 230 198 204
6209 -2.7605608466660878 5.1537068754943602 5.539354524851209 195 181 155 0.26679397890479351 194 853 195 259 196 233 197 231 198 205
6210 -0.41886846404791545 3.9078212206367007 6.0869827650832518 167 151 125 0.17584069533179517 167 516 198 232 168 430 199 200
6211 -0.32927873830828425 3.9159468178255703 5.964069385732568 166 152 126 0.30859085158946742 193 271 194 303 195 293 198 234
6212 1.4369240180062386 3.3327573548465161 2.9108441438753285 127 114 98 1.6452113767998862 192 255 197 255 198 238 200 228
6213 -0.5546381475952098 4.338213391058928 5.7632865827291875 167 155 131 0.15694928122264135 168 1056 169 1061 198 266 178 146
6214 0.18387231303202534 4.1319009776984315 5.7487065883967494 165 150 127 0.21884158711087892 192 318 197 292 198 272 193 328 199 242
6216 1.8294844520190472 3.2805595201557551 2.5541796827566672 0 0 0 0.37492599617126898 170 374 194 342
6217 -1.9309290982409391 5.5868675067994626 5.0405843922961893 169 153 127 0.27269600143245976 189 412 190 364 198 287 188 378 199 256 200 272
6218 -1.9246696361753914 5.5846384862761962 5.0316157243945856 169 153 127 0.27102090580011973 188 377 189 411 198 288 199 257
6219 1.4888122010082085 3.7083453780140774 3.36318358335151 186 169 149 0.73556782544473631 195 352 198 301
6220 -2.2185957510195333 6.0256284636299782 4.619510732628533 172 158 132 0.46946838896574911 192 424 193 456 194 497 195 410 196 384 198 319 199 291
6221 -0.51500595943249106 4.8747060855490405 5.3454548923201219 167 149 127 0.3475663034361281 194 398 195 374 196 351 197 332 198 329 199 265 200 284
6222 1.8743952269724067 3.6923519150146067 3.1274080733462899 0 0 0 0.72996957160205889 155 145 189 348
6223 2.1242654834610262 3.5080506806876399 3.7630065610038925 100 88 74 1.9871761294650243 194 417 198 349 193 382
6224 2.5066718483018686 3.4975062558286401 5.8132083644914943 148 135 112 0.3845942949593551 195 812 196 372 197 355 198 351 199 318 200 410
6225 -2.3020102342467066 6.1621505773157992 4.4320742526067454 167 153 128 0.77698457671317889 194 493 195 464 196 381 198 359
6226 -2.3020102342467066 6.1621505773157992 4.4320742526067454 167 153 128 0.77698457671317889 194 494 195 463 196 382 198 360
6227 2.2439899193276727 3.6745969923713644 2.0831868579833568 127 115 93 2.3770112097092531 183 294 199 361 185 315 184 272
6228 2.7975943753439223 3.5389561275629879 5.7044500547276087 148 136 114 0.19249421167324185 195 441 196 433 198 409 193 436 199 381 200 414
6229 -1.2706460384238722 6.0171004916449435 4.5129513855011751 165 151 125 0.12839183408474333 192 515 197 435 198 419 200 421
6230 2.4003845152281489 3.9407590065539604 5.4168466299657867 142 130 106 0.35647491070681303 195 504 197 455 198 430 199 403
6231 3.3897474049999392 3.3506871605271691 5.7949122990174589 149 135 109 0.14063545905449371 167 377 198 433 199 408
6232 -2.2095879898002138 6.7639992467623768 3.8740532845389923 190 176 150 0.20260272334785256 194 619 196 855 198 443
6233 -2.2255938374564681 6.8435759812931645 3.994896931058403 184 170 144 0.56114656058404677 193 568 194 622 195 595 197 516 198 445
6234 -1.0561842809732185 6.2547373215095075 4.5020307360235847 173 159 133 0.45571793001453609 194 634 197 526 198 452 199 423
6235 0.5928412339518665 5.2792451374200402 4.8202360069151924 167 153 127 0.30565597207527101 193 548 194 599 198 459 199 429
6236 -2.2239428957318377 6.8748773266054535 3.7563510259737676 165 151 125 0.31378239020202103 194 620 198 487 195 593 199 410 200 447
6237 -0.41590837098079075 6.0308430606246066 4.2758486064772896 171 157 131 0.20274874548320071 192 604 198 501 188 510 189 542
6238 -0.068298022093905328 5.9298731363196842 4.4040446232184918 168 156 130 0.35077698131345941 195 910 196 879 197 892 198 506 199 471 200 495
6239 2.1065166805516635 4.9407633216794196 4.4192220846858055 179 168 141 0.63794821355752784 192 612 198 545 199 533
6241 -1.965564648849973 7.257136460825576 3.4405249254257964 166 152 126 0.29606334616469449 194 743 195 661 197 610 198 558 199 500 200 528
6242 -1.7258445247216947 7.1876997183014311 3.2138037885830237 164 150 124 0.47055884448139146 194 1049 196 912 197 924 198 560 199 834 200 833
6243 -1.1441618382122478 6.8911404182456755 3.8698844799511507 167 155 129 0.26970199545371398 194 725 196 632 197 619 198 563
6244 0.19654920237977566 6.1785238382165382 4.0991124693673253 173 159 132 0.31565287095564631 192 651 193 655 198 569 199 556 200 592
6245 0.19654920237977566 6.1785238382165382 4.0991124693673253 173 159 132 0.31565287095564631 192 652 193 654 198 570 199 557 200 593
6247 -1.5770282320006055 7.4281360627977708 3.2237143031445439 166 152 125 0.34943983645712312 194 757 195 685 196 656 197 666 198 589 200 616
6248 -1.4867791630154596 7.324850058309047 3.2330709970318532 161 147 121 0.15056578966804252 193 992 197 668 198 590 199 577
6249 0.91159101219018168 6.0947205066034025 4.022968139709012 192 180 154 0.15257869610357641 195 679 196 664 198 599 199 592 200 629
6250 -0.87329593810590855 7.1664932752595361 3.3241928608532021 163 151 125 0.27456889603108603 194 765 195 688 197 672 198 607 199 601
6252 1.8080899832901438 0.31817995667461718 8.6971138382056719 176 161 138 0.23213491067781347 194 45 195 52 198 644
6253 -2.5117823374077468 3.8168348677150541 6.3761088150528922 193 179 153 0.29762977119015177 194 811 198 663 199 645 200 909
6254 1.6301901827977654 2.8300236997142889 2.4391059524674716 43 39 38 0.50698795235294702 188 934 197 156 198 674 199 138 200 156
6258 -3.0226429606421736 6.3442687614608815 4.3492239399107717 165 150 127 0.36463410296263477 192 422 197 791 198 725
6261 -1.1652743281197195 6.2176097821774334 4.498634319557584 190 178 151 0.3697881547580435 194 977 195 890 196 861 197 840 198 769
6262 -1.1652743281197195 6.2176097821774334 4.498634319557584 190 178 151 0.3697881547580435 194 978 195 891 196 860 197 839 198 770
6263 1.1309091307375008 4.8481850911398165 5.0727916757034919 160 142 118 0.36502526943888541 188 437 190 731 198 780
6264 -2.3179164471457265 6.9704681301625131 3.827187070437688 165 150 127 0.31397091695382001 192 884 193 930 195 592 198 796 194 1001
6265 -2.0718648471422663 6.9621107945091998 3.6640128970885431 186 172 145 0.20339536076707301 191 596 198 797 199 456
6266 -1.5660279963479686 6.9085881508173994 3.7095735583701441 162 150 124 0.60307624870419096 193 1115 195 927 198 827 194 1194 199 511
6267 -1.7418029483788369 7.1346208766619537 3.553714229131081 167 153 127 0.43739684269889079 194 714 195 945 196 913 197 906 198 842 193 969 199 504 200 531
6269 1.8526337483355755 3.3014821312284526 2.8133745041906235 91 83 70 0.087164611767715922 198 923 200 935
6270 1.8972576388132203 3.231044540152471 3.3104880580237066 91 84 73 1.3085613641164171 194 1109 196 748 198 924 193 1157
6271 2.9050581737480643 2.5352133914006574 6.6775205431795142 152 140 116 0.14533346728140847 190 866 191 961 198 925 199 912
6272 3.5387987040499507 2.1805207100462645 6.7012877625716305 179 167 145 0.30118475690543989 195 1021 198 927 194 1104
6274 3.0199462600948159 2.8745727660202594 6.2797987095665277 148 134 108 0.35100647266460933 194 1111 195 1026 198 930 193 1043 199 917 200 938 188 846
6275 0.86348440284753714 4.7991242749343233 5.0858543673052319 187 173 147 0.34310787558452455 169 1303 198 957 200 969
6276 4.5119873658963234 2.8111193887824975 5.9476755694084549 150 135 112 0.20623055001320353 191 789 192 791 198 962 200 975
6277 3.9871003497356989 3.7650067069093289 5.3466851259811445 145 135 109 0.37975457071559393 162 943 194 1168 197 1033 198 978
6278 3.9859075275696987 3.7634628639913679 5.3315506616319919 145 135 109 0.43546455667997958 147 458 197 1032 198 979 199 968 194 1169 200 1005
6279 -4.7075347012464928 5.17467794992195 6.1275974756526379 166 155 127 0.44494639793948604 192 1094 195 1100 196 1059 197 1072 198 1002 193 1144 194 1223 200 913
6281 2.1970385909139623 3.4150767379555846 3.4429415390526019 100 88 72 1.1781573736974797 188 856 189 907 198 1016
6282 2.211263534464226 3.511215722593827 3.5144631532778576 102 92 76 1.6429608701382095 190 884 194 1242 189 916 199 1027 200 1070
6283 1.3616082312017739 2.5575324313589984 2.6340448398323972 47 38 29 0.76898613417984374 150 673 149 542 198 1070 187 929 196 1127 180 612
6287 3.1375213261071284 1.8530989764676402 7.1212537163154224 91 84 71 0.23174705921857619 182 79 197 226 189 186 196 180 198 202 199 179 200 203
6288 -2.688451680234627 4.5262210660578628 6.0344831753501493 167 153 127 0.62939233593541077 158 823 173 725 174 616 198 149 190 211 191 235 195 227 188 204 187 179 199 130 185 175 186 173 184 171
6289 2.6842269798782126 2.3408423120646003 6.7530835150341195 157 142 121 0.50259892575523357 145 78 146 87 147 81 143 128 140 115 139 120 138 155 137 157 136 184 198 246 183 132 193 244 194 270 196 220 197 749 184 144
6294 2.5867812305022131 2.4855920984482185 6.6489865720873658 124 109 97 0.72772283012819095 140 727 141 551 142 497 139 506 143 488 138 533 137 499 136 531 135 499 189 670 198 699 181 111 195 308 197 266 182 136 186 507
6295 -1.6001931479427498 5.1956774289768068 5.2789862049088585 162 147 126 0.83234881575427377 168 1354 165 1468 170 1132 171 741 169 757 172 927 173 513 198 717 182 297 195 784 196 757 197 780 199 697 200 718 186 269
6296 5.0522149502910683 3.1337502641345831 5.6134759526439835 93 78 55 0.82710503490888321 148 99 171 424 150 71 183 305 188 418 181 256 190 395 194 975 193 531 195 882 196 876 197 886 198 822 149 402 172 811 173 692 150 447 174 773 194 973 195 884 197 888 191 459 192 511 200 850 163 222 162 203 184 533 180 401 175 671 178 159 176 619 151 92
6297 1.3303943187984331 5.549223006399318 4.3765296223394303 157 142 119 0.54068268323912472 169 1440 170 1424 171 1314 172 1153 181 751 182 661 198 849 188 787 192 913 195 934 196 898 197 913 187 723 185 674 200 601 186 642 175 722 178 525
6298 4.518851789624085 2.809356620280135 6.0021362464481376 148 133 110 0.43476521889028708 164 164 170 259 165 193 171 299 159 138 172 792 157 527 155 360 198 961 169 257 191 788 192 790 200 976
6299 2.1293888289579757 4.5541499602739446 4.2843679769294125 53 48 37 0.4138509186905705 192 1226 193 1284 194 1340 195 1219 198 1127 196 1181 197 1186 199 1121 200 1161
6300 1.7602603946900375 3.789471268596122 3.7093182104780378 115 105 83 1.2561088226971111 190 305 198 730 199 315 200 336 188 328
6302 1.2784906745944331 0.016975278455187818 9.0988275457173309 154 138 122 0.49674440768506262 194 15 187 5 191 14 192 8 193 21 188 8
6304 -1.1954208757452041 1.3492600998934652 8.3606489822019441 160 148 122 0.45311745157977867 190 31 193 29 187 27 191 19 192 23 195 28
6305 -6.5317124704157878 3.1904686334268186 7.9483980398379863 168 153 130 0.67006983754714833 196 2 197 3 187 34
6306 -4.4500423912201041 3.0410794124268614 7.8135256925538012 156 141 118 0.28001113640279324 188 43 189 44 194 32 187 45 193 57 190 46 195 37
6307 -2.9881427418747486 2.7889522259957351 7.5994476325603992 168 153 130 0.34429024643493855 190 67 192 42 193 62 194 57 187 49
6308 2.4008437261499416 1.3508236454162164 7.6250448140954337 151 134 111 0.44091345174519847 143 72 189 82 191 116 187 65 142 78 116 327 115 297 113 338 110 273
6309 -2.2163761664979083 3.2425982297048535 6.9732825276451296 166 153 128 0.83728911609019596 160 848 168 942 189 122 187 99 169 318 170 337 167 336 161 343 162 372
6310 -3.3985745046679905 4.0889761787364529 6.5297208910338433 160 144 119 0.1221005686608357 188 142 196 86 187 121
6311 1.8293503228193106 2.8845964026515585 2.4162279076390112 70 69 67 0.33464792991003722 182 130 187 143
6312 -3.2097829978710957 4.2107963219028992 6.4151849856953946 167 152 127 0.58418345373670488 188 162 189 156 193 192 195 162 187 157 191 161
6314 1.5571740030854622 3.2488631828627796 2.6754645334353837 40 40 33 1.0353013438974565 183 181 195 296 196 255 187 197 189 235 182 188 185 161 186 162 184 161
6315 1.3979042165778766 3.4893695572134908 3.2492690211993343 182 167 144 1.6146015562512821 183 533 187 222 186 183 184 499
6316 1.4984736641357599 3.376141553766498 3.5999618231003518 112 99 90 1.595611962157885 188 660 187 223 180 370
6317 1.6666704424341752 3.3025206263716598 2.9778671734669677 97 96 92 0.83672776166734375 190 249 191 282 187 224 185 192 186 184
6318 -2.7439248275221377 5.0957536570456234 5.6165325334159242 167 153 127 0.48759766703060875 189 299 192 269 187 241 191 751 185 253 186 208
6320 1.6789771509694951 3.8069027722672466 4.119023435359038 100 89 71 0.96105838287360645 193 376 187 287 180 164
6321 3.1358663312830033 3.0189447409460133 -2.1336741489130411 0 0 0 0.15377097158990471 188 337 191 420
6323 5.0666285012280774 2.7034028462258433 5.8217150157672171 92 77 54 0.40807147691675355 193 449 187 300 192 417
6326 1.9409607660291615 4.0193519608480122 3.8381693325629174 107 95 80 0.27187715116465944 191 447 187 366 186 329
6327 -1.891783399907002 5.9851885434075287 4.5225105996576715 166 152 125 0.61152826277564398 182 374 183 375 187 407 185 647 184 356 192 471
6328 -1.8214087840734536 6.0788997672172247 4.6224411271513803 168 156 130 0.28550064540276759 182 639 187 409 186 615
6330 0.1504589465441446 5.3698544429368482 4.7616740374982545 161 147 121 0.3763046756311646 183 380 187 416 185 427 200 430 186 371
6331 0.73085899634029106 5.1110451278461717 4.7567307830502408 184 166 144 0.20449261870874882 188 459 189 487 192 536 187 418 190 455 186 374 183 385
6332 2.1977708510134968 4.4519386051414411 4.0683235876631949 112 100 86 0.36756848676689091 182 367 183 366 188 899 187 422 199 485 200 502 185 636 186 383 184 569 180 234 179 277
6333 1.838737542876272 4.9431942065563295 4.8155124238453029 99 85 61 1.104934123950098 174 813 187 434 172 1132 184 366 181 370 182 388 180 248 160 985 159 897 165 747 158 807 157 402 179 606 175 704 178 412 177 545 176 654
6335 2.4696854159971 4.9611817718220843 5.686056683267843 79 68 50 2.492639444519857 183 619 187 448
6336 2.4697648574207536 4.8605822866141253 4.984363415615908 144 133 113 0.60634865721816811 192 615 198 852 187 450
6338 -1.4323266592290018 6.6545909927744455 4.2642660265822565 166 154 128 0.22938694754563116 188 783 189 840 191 895 192 887 187 483
6339 0.56503968462320209 5.8774202512450255 4.146255908367614 177 163 137 0.39158837838639871 189 573 191 611 187 486
6340 0.73338147288753563 5.885530216117008 4.2197173370866379 171 157 131 0.34872368465147074 182 670 187 487 186 434 200 595 184 608
6341 4.8854642305686848 4.4664245408678749 4.5388069614515798 166 151 128 0.46894507242187733 181 420 190 577 187 499
6342 4.8952783365784942 4.5363263698143603 4.5034738219410873 98 83 60 0.4041558270379953 173 539 187 512 179 327 177 287 31 314 25 256 44 259 7 213 8 210 22 301 4 227 5 249 6 225 2 308
6343 -3.5880994998516034 3.352827493083796 7.1956416874625333 158 146 120 0.45745289823712426 194 82 198 55 187 533 199 41 185 500 186 475 184 442 180 331 182 69 181 39 183 74 179 541
6344 -3.4184092226541849 3.7868752283032987 6.9192036089564724 163 149 123 0.22441568935221484 197 73 198 76 187 543 194 136 195 116 196 88 199 636
6345 2.000489586258833 2.6117915262100997 2.503388784583739 58 62 62 1.3833480594363234 191 709 187 552 184 448
6346 1.245410994896897 3.019775053523865 3.4595691589343898 51 44 36 2.2053533164141368 183 125 188 1007 185 131 185 819 186 794
6347 1.9433121914041311 3.0291504247005601 2.210070495148488 90 86 83 0.43857843571477806 183 153 187 578 185 546 186 139 184 473
6348 1.9815150676075619 3.0292377539216733 2.0883926494587111 40 35 32 1.1183748442849932 181 134 193 233 187 579 182 163 183 154 199 170 184 163
6349 -4.3086168059765155 4.9119990495696468 6.2111142874415552 163 151 125 0.74860129000047082 188 636 198 123 187 585 199 110
6351 2.1538577154050622 3.016874336221345 3.0664787410563759 109 98 78 1.2680073496455893 182 168 188 838 187 591 185 716 189 901 186 689
6352 1.9964485939798735 3.2416890408553964 2.497094297205229 88 79 70 0.97442379617088404 188 664 195 779 196 298 187 606 186 693
6354 2.1178139102947622 3.5738365047027663 3.5554467381147403 103 90 74 0.66488003424703923 188 689 189 718 191 784 187 627 190 684 192 787
6355 5.0901898257711009 2.6553318478788985 5.9333626966088975 100 85 62 0.94945133636584456 191 792 194 924 187 628 188 693 192 415 193 448 190 314 186 546
6356 1.5643381681979784 4.2422252081107246 4.2086236059653963 161 146 125 1.4142105668294997 174 930 187 654 176 705
6358 -6.4254257098482261 3.3494728142758468 7.5901424989304767 185 170 147 0.481772172650903 193 1006 194 777 195 996 196 674 198 634 187 741 199 882 200 656 186 662
6362 1.9145920585132064 3.7930913710195484 3.6116908726464465 104 92 78 0.43743645316719881 182 746 187 784 186 713 184 678
6363 5.0204209082474236 3.4267553157837116 5.3889722664415096 148 134 108 0.47863835153880596 137 453 188 894 187 805
6364 2.114730260374877 4.4063423234681149 3.9721803951426611 114 103 85 0.26636059602587997 197 1029 187 809 186 597 172 557 174 401 177 239 176 296
6365 2.1058558672868397 4.9315723810348082 4.2810073145832117 0 0 0 1.7824460915323188 173 1073 192 1058 172 1231
6366 -6.7063685266530104 3.0088316738146696 8.3339658928516087 187 172 149 0.4809296432187633 188 929 189 990 190 957 191 1050 193 1007 194 1074 195 994 187 849
6367 -6.540480114862004 3.0061919429473019 8.1368058984473599 187 172 149 0.49406923719809609 190 958 193 1008 194 1075 195 993 197 959 187 850 196 671
6368 2.1229149867047417 2.7109667700227948 2.6248336444151938 60 52 43 1.3434425161533579 182 804 187 862 184 741
6369 2.1018943870867455 3.0512004665184405 2.8448920823509201 42 37 27 1.8138147460765293 191 1069 187 869 200 1119
6374 -5.5115825463522716 2.676040192696004 8.1736198947831955 185 171 148 0.3761952984719048 198 1067 187 927 199 991 186 838
6375 4.9994909085988315 1.4976257373746078 6.8814077077035813 177 165 143 0.18047916407233539 173 1112 188 1005 187 932 186 843
6376 2.0009933935810653 3.921676565175261 3.9034119648066063 112 99 83 0.52715147697370224 183 831 187 935 186 851
6378 1.3734672076132888 3.2737891157616144 2.8250099367327794 178 165 147 0.8246881988505903 188 1053 192 1169 187 959
6383 2.0874667809029233 1.2879671374589987 7.7323440011679159 152 136 113 0.96898231503725574 136 152 137 150 134 119 187 62 164 874 188 79 166 869 189 79 191 79 190 86 194 115 193 88 195 98 199 107 200 119
6384 3.3044591523516869 3.8888195412727269 5.3787556181527201 146 130 110 0.60284423858769054 160 303 169 525 170 535 161 325 171 1025 159 285 158 198 181 284 182 321 191 841 192 843 187 371 193 1085 194 1157 195 1060 196 839 197 856 189 476 190 440 198 814 199 958 200 990 185 611 186 574 184 312 180 409 178 191
6386 5.097894896510903 2.9222079420563785 5.7838716390138449 171 153 133 0.69659975784752848 147 415 143 68 163 937 162 1224 157 76 155 511 187 796 160 126 174 770 182 257 179 422 176 615 117 110 118 85
6387 -1.6258201886199619 5.4103418127448828 5.1032110550787575 166 153 127 0.37255532991593715 169 1335 170 1335 171 1299 172 957 188 383 187 353 189 366 191 388 194 885 192 379 190 324 193 406 195 365 196 775 198 291 200 276 199 258 185 601 185 602 182 329 181 291 186 312 184 320 180 432
6390 1.9489496670941227 3.0277347934031682 2.1464246654800729 94 90 87 0.78638592017621356 170 254 183 152 187 577 188 630 191 215 190 195 192 742 194 262 193 232 195 243 196 207 197 212 198 193 199 169 200 190 185 545 186 138 184 472 180 87
6393 -3.8647606101912317 2.2432723500215146 8.1255795573069616 180 166 140 0.57757883489592021 171 846 198 9 199 7 170 145 172 728 173 63
6394 -1.5583781157314638 0.96892698550773271 8.7019179852589268 179 164 141 0.45614527436900942 191 660 192 6 194 10 195 9 197 15 199 9 200 14
6395 -0.52660051338194047 0.26933289684853523 9.1870999794063195 152 136 113 0.22503672006920805 181 1 199 10 182 461 200 16 184 420
6396 -3.7197358521937809 3.3630504273492385 7.3909502603599737 157 145 121 0.35347537129232132 194 81 198 56 199 42
6397 -2.9950535719627291 3.2441302653897988 7.0270633671411238 166 152 126 0.55396525839272792 187 534 199 43 188 824 200 664
6398 -3.314751948630307 3.8226476300459336 6.7147669955510887 165 151 125 0.39871533749567473 187 119 199 65 188 105
6399 -3.3893220859907265 3.7233378103113686 6.9213254349985895 162 148 122 0.41760653212925725 190 116 192 95 199 67 200 70 185 87 186 77
6400 -3.3489942908159351 3.7172750232318372 6.8587357858108149 162 148 122 0.45362460338014043 188 102 189 636 190 115 191 696 192 94 193 106 199 68 200 71 185 88 172 796
6401 -2.9668465720228547 3.3893891413937447 7.045330783302048 165 151 125 0.4188156332307561 170 331 189 86 191 92 192 100 193 109 194 88 195 76 199 73 190 90 172 244
6403 1.6759812574121435 2.846832829247266 2.3846408144306079 39 41 38 0.29725232409818014 194 240 197 182 199 139
6404 1.9077033458732386 2.6852765687760356 2.4584856816965597 36 33 32 0.71823585786434352 196 150 197 159 199 142
6405 2.0735653601991775 2.6738601501613521 2.5102875557308004 62 59 58 0.57884098500090753 190 167 199 143
6406 -4.1602534646988421 5.6629512215603954 5.0318888675090401 157 144 118 0.51057925396955106 194 275 195 257 196 227 197 194 198 172 199 148 200 136
6407 -2.1167186162548002 4.7198437346628248 5.8335882886768893 189 175 149 0.35483781739782561 193 259 199 158 200 166 194 843 197 751
6408 -0.6945628279601751 4.0135881176149262 6.0182920856280591 169 151 129 0.33588502465755343 190 216 192 247 194 298 195 764 199 163
6409 2.0414187682476714 2.9575311174684091 2.1454102798074746 84 80 77 0.49699418856383182 189 214 198 196 199 172 190 196
6410 1.9109509573313077 2.9634697171089748 2.8813009268559622 0 0 0 1.8037036137427882 192 743 191 731 194 263 190 638 196 214
6411 -0.56882972391985986 4.1553173562828203 5.8414966700097954 187 171 146 0.30596369963976988 195 768 197 753 199 198 194 859 200 705
6412 2.3088055575161039 2.6295067066402145 6.6339896719733895 156 138 114 0.29028011530301151 196 264 199 207 195 305
6413 -1.5326558085965221 4.9383556790490761 5.3429942016050145 165 151 125 0.23607783569669549 192 301 193 314 195 341 199 221 194 352
6414 1.8565780358256043 3.1402808981503929 6.3109033866455153 159 142 118 0.24478716647965459 196 300 198 281 199 251 200 265
6418 -2.3443117976305134 6.1186391015543382 4.5509260261305835 168 154 127 0.69625025653496142 193 852 199 288 195 409
6420 -2.143587417476561 6.2391040187416547 4.2921993913755649 191 177 151 0.3470197548152219 195 467 197 423 198 358 199 326
6421 2.1849765367601894 3.761612329480108 3.8547048118243117 104 91 75 1.0848883239985947 193 432 199 367 192 406 194 907
6422 2.0577131819277965 3.9031395426238173 4.092508673631861 59 47 31 0.37531037162204778 196 428 198 405 199 368
6423 2.3846795454942353 3.6166871025809435 5.7288657910379879 154 139 116 0.3374710431885658 191 368 192 361 194 419 199 375 193 384 195 393 200 406
6424 -2.3544551406019449 6.6109877401102288 4.1876982285032742 167 153 127 0.50662597821040667 192 862 199 383 193 893
6425 -1.2161697324854108 5.9591048415767229 4.4808830428156119 186 174 148 0.5138982956957231 194 543 199 387 200 424 190 742
6426 0.82068578168907858 4.9601055306111119 5.006316000322113 170 152 128 0.63234965551744449 183 361 194 561 199 396 192 488 184 350 182 364 177 263
6427 0.82427500911798168 4.9556923663705801 4.9964324734612457 170 152 128 0.37915044846686008 183 362 194 562 199 397 184 351 177 264
6428 -2.2086506584014161 6.7213454265991475 4.1020433155691611 165 151 125 0.46306164218647788 189 537 199 414 184 400
6429 3.0064699333516236 4.1171641755987407 5.1939694513878045 140 129 103 0.23976173029516901 190 436 198 523 199 490 200 513
6431 0.68539983857063014 5.6880367797836691 4.4407417426377638 166 152 125 0.36125442345158754 193 630 194 697 198 542 199 524
6432 0.75314971355124449 5.5591539503939913 4.5924962923397885 170 158 132 0.2014230401901507 195 605 196 575 199 526
6433 0.77376311235550421 5.6473284189638076 4.4148236488295227 165 151 125 0.29712234517922093 189 546 190 522 192 607 199 528
6434 1.8124373335824193 5.0345269976378129 4.6320298404269415 173 157 132 0.28938388075927701 193 593 199 530 192 579
6436 0.94204188564783164 6.0000350497473489 3.9753656988704651 171 157 130 0.32077182376228769 196 663 197 654 199 591 200 628 190 825 187 735 185 482 186 442
6438 1.2369968012462862 6.1984388919262088 3.7856756589540841 163 149 123 0.32876722917165829 194 768 198 624 199 617 200 649
6439 -3.373773610749923 4.1621216884033201 6.5278011977832282 162 150 124 0.38694208541556974 187 757 189 879 199 644 200 683 185 704 186 675 184 743 185 818
6440 -4.5795751187243541 5.0236866985544424 6.0820517479117884 162 148 124 0.48907855259181304 193 753 199 651 200 97
6441 1.6894550875221475 2.7993370955948667 1.725243136068711 70 53 43 1.6737383318676833 197 154 199 655
6443 1.8092735477515161 2.5045167847900203 2.7463453664758561 66 61 49 1.8022886967710086 192 708 197 726 199 657
6444 -0.52270383327747516 4.4605595526449342 5.5734302271900376 188 174 148 0.35126432406995417 191 307 192 769 194 367 199 688 200 251
6445 1.9506853013474486 3.2212105610261581 3.1008269353918241 90 81 70 2.1060324265640888 195 332 199 691 188 663 197 297 187 228 190 658 191 756 185 198 186 192
6447 -1.9567144340120586 5.6154727223706269 4.8814834280144268 170 156 130 0.23534909419092989 194 900 197 793 198 284 199 695 200 726
6448 2.1584951799026042 3.4429203393115344 3.6183810538999772 97 85 69 1.4544891106478266 197 321 199 703 196 330 198 304 200 342
6449 2.1135781810268495 3.5524013299987218 3.5875206620458866 99 87 71 0.47577592677592212 196 779 199 710 195 391
6451 0.18316596190589896 4.8587246893836573 5.1756150675252082 159 144 118 0.27990072426040646 187 649 188 713 189 757 199 725 190 372 191 439 185 347 186 568 183 720 184 328
6452 1.5866766954001823 4.0694935267605663 3.8264875666861036 131 112 95 1.8194187400312913 195 817 197 811 199 727 194 461 200 391
6453 -1.3446842460003856 6.4879927166446043 4.1974357801700721 172 158 131 0.30252692471182208 192 1057 196 1017 199 760 200 779
6454 5.0991368447465693 2.6995567157857798 5.9578397482400201 102 87 64 0.60020514630325705 162 129 199 787 153 62 152 97 151 76
6455 5.0980344416701593 2.699663572708296 5.9529425469759021 102 87 64 0.34143199902317012 162 128 199 788
6456 2.1141275361801961 4.5143766651255115 4.0850481756034318 87 75 59 0.22184041571216709 194 1162 195 1067 199 790 200 812
6457 -0.77666028144934773 6.6607209508398162 4.0625224730480722 164 150 124 1.167040797125747 192 927 199 810 193 647
6458 -0.20251425255397484 6.2716827008780642 4.0782165385308975 167 155 131 0.5480397054635423 192 621 193 649 194 729 199 817 200 547
6459 -0.024734426033416322 6.322583938580677 4.0375499534935573 169 153 128 0.40202397705047038 187 730 188 924 190 942 199 838 200 591
6460 0.12569412093805124 6.3046200920744306 4.1944463388974338 170 155 129 0.46438896154749837 196 639 198 571 199 839
6461 0.12569412093805124 6.3046200920744306 4.1944463388974338 170 155 129 0.46438896154749837 196 640 198 572 199 840
6462 -4.0417789562566506 4.3923152746679222 6.430636442684972 161 150 122 0.41185545470837404 190 849 191 945 192 958 199 891 200 681 187 569 185 532 183 495 186 498 184 460
6463 1.5468737197013862 2.6818443254073285 6.6979528525525156 158 143 120 0.31439753000148996 156 569 197 746 198 917 199 905
6464 1.6599985042104364 3.3469290115171635 2.7196853786662496 0 0 0 1.5753568579513235 181 685 191 1070 196 972
6465 -2.1250595914172936 6.2478523937616997 4.5237633270728885 169 155 128 0.10919999137673919 193 1182 196 996 199 932 200 950
6466 -0.28244969564885131 5.8222040161173565 4.435268892607394 191 177 151 0.44927584897984885 192 866 195 1066 197 1028 199 950 200 781
6467 2.682177479177152 4.4131389551516307 5.0203367576607061 143 131 105 0.43787573446101902 189 797 191 864 192 857 199 957 188 476 190 470 186 601
6468 0.94273676295765552 6.2868921402182183 3.9550988541420482 168 154 128 0.91654493598839937 195 1157 197 1057 199 980 193 1209 200 879 193 1128
6471 2.1494783672038769 3.0333267821096359 2.7769314050918874 95 85 73 0.78218396195200024 197 1143 198 1014 196 969 197 977 199 1018
6472 1.9804943997379656 3.1431106843685694 3.1186756192047165 40 33 29 0.96510160307188464 194 1288 199 1020
6474 -6.6205092808290624 3.2968448358998872 7.8698265532205189 184 172 148 0.98694046299557947 193 1212 196 1124 197 1131 198 1066 199 1062 185 880 186 858
6475 -6.2011655484476362 3.7187807167484199 7.0499470404138522 190 176 153 0.64731128007271166 191 1121 192 1164 193 1132 199 1063
6476 -6.2173914808723234 3.7195050468026509 7.064945865880957 190 176 153 0.62328538659738342 191 1122 192 1165 199 1064
6477 -1.4319205251544671 2.1262142611141881 7.7970688184788433 182 167 144 0.69180381890781972 169 1482 171 1456 199 1065 151 615
6479 1.9009554294602242 3.8145647680619783 3.9452194547736492 102 93 76 0.56949749223648372 195 1191 196 1161 197 1162 199 1094
6480 1.5228462006308361 4.2025075669184577 4.0843293579439175 185 167 145 1.7691621243165578 195 1204 197 1184 199 1107 196 1190 200 1150
6481 2.3658476020422365 4.901568462011098 5.0398719796477636 103 90 73 1.3011277879700947 183 892 197 1201 199 1136 200 1178
6483 -0.013293436591041428 1.6518533080866451 7.8425417217039133 158 143 120 0.44292008303390817 165 101 166 129 183 48 191 56 190 53 187 38 199 46 157 513 172 76 173 52 193 66 158 582 197 57 185 30 186 25 175 21
6484 0.86014950852603755 5.2047489722523963 4.7440371747200745 153 139 116 0.47822549881242871 168 757 163 811 165 846 166 799 167 856 164 790 162 738 170 753 199 434 189 493 192 542 194 601 193 901 195 572 196 542 197 874 191 1015 188 905 198 466 187 432 200 461
6485 5.0892579781750893 2.6816619772704402 6.0073698718638573 166 151 130 0.75532746404922235 193 848 187 298 192 416 199 453 190 690 194 917 195 1055 196 816 188 333 189 362 197 465 198 789 185 737 172 1052 176 610
6486 5.0690339992929836 2.9547255639097223 5.7485452215930888 88 74 51 0.45891955341768953 150 55 182 556 199 497 163 183 170 322 171 365 181 229 188 368 189 405 191 455 190 361 192 833 194 951 193 873 195 555 196 850 197 863 198 824 187 337 200 524 185 323 186 301 184 282 179 187 175 498 174 594 172 794 173 684 178 144 177 150 176 474
6487 2.1818647730833214 5.0315661212179208 4.7713636770159837 185 171 153 1.5242089356081145 165 1451 167 1397 163 1454 164 1404 162 1331 161 1238 160 1186 159 898 157 847 156 644 199 844 146 726 148 792 149 629 150 654 154 464
6488 1.4571400436763817 3.6675382119938749 3.3774455392496687 185 168 148 0.058843320628453225 191 321 185 570
6489 1.6776915943322779 3.3395822671969433 3.5273962340134499 91 86 74 2.5556858394888291 171 1348 199 1019
6490 1.9201416783732361 2.6151363734517221 2.6638585842635933 41 42 34 2.6805808050515689 195 1240 196 1203 199 1142 200 1184
6491 2.4379063731537629 3.5174921491016868 3.8395751383037231 160 148 124 1.1207163390996309 197 1209 199 1145
6492 -6.1381433253137612 3.5741326084365173 7.0707087482254929 192 178 152 0.68865231057672271 195 17 196 19 197 23 198 18 199 4 200 3 193 713 192 683 194 787
6493 -4.5942024474369338 2.380550991370542 8.2100541354879581 166 151 128 0.27874446062855779 192 17 193 27 194 18 196 4 197 9 200 11 195 22
6494 -4.6473163710685581 3.4059207668603251 7.1916682538691745 165 150 127 0.2829663653265288 195 53 200 36 194 51
6495 -1.9418031553232584 2.189309303920723 7.760118091842477 183 168 145 0.64301844767242433 173 96 200 43 170 153 171 850
6496 0.19465119309979034 0.89986475436505697 8.599035835539528 155 141 114 0.39561657480134244 196 37 197 45 200 44 195 42
6497 1.4214679400134065 2.7605619162089425 2.5122874240155104 81 69 53 0.65430790757677826 192 717 200 130
6498 1.8811989922352832 2.6521537939002577 2.4575158046721572 43 40 40 1.610432319693583 198 139 200 132 197 158
6499 -2.0358379354615055 4.6069613220105241 5.8764788970460549 166 152 125 0.29229481376736444 189 258 200 168 187 206 188 239 185 218 184 206
6502 1.3439694890848706 2.8630722042610266 5.8163562277516059 0 0 0 2.048951376009887 182 704 199 177
6503 3.0289486697814461 1.9174934023267829 7.1170517327303289 155 140 119 0.15281925287816253 190 176 191 187 200 201
6507 2.081182228352549 2.9969761050810133 3.0945301094880695 46 36 34 1.5396108632973358 195 302 200 230 196 262
6508 -3.0804089854865224 6.3760831355564171 4.4180861968128315 162 148 122 0.29968501669083708 192 421 193 851 194 925 195 814 198 724 200 271 196 783 197 790
6509 -1.8899762913348181 5.9469785407279021 4.8542562784047023 192 180 154 0.3744699891009311 195 470 198 370 200 313
6510 -1.8899762913348181 5.9469785407279021 4.8542562784047023 192 180 154 0.3744699891009311 195 471 198 371 200 314
6511 2.4495251749742848 3.6728953006960774 5.5103724442089614 170 156 130 0.4390320809331813 197 413 199 377 200 407
6512 -2.0315452252579993 6.5093381350586954 4.2826893950773517 168 154 128 0.49212097478144645 195 562 200 420 193 537 196 490
6513 -1.1534154525451845 6.1669320814870208 4.2691561295648484 171 153 129 1.0100794083523728 190 764 191 537 196 859 200 423 195 564 180 282 183 421
6514 -2.2259042039909529 6.876414724097895 3.75877834345212 166 152 127 0.20915808766931487 192 598 199 411 200 446
6515 3.2585755324226362 3.7480953566306927 5.5524472020403284 142 127 104 0.28574695156097296 197 508 198 479 199 446 200 474
6517 -0.60178766404985529 6.3380708535325354 4.1129977418390586 165 153 127 0.36124968198746765 195 638 196 569 200 492 180 311
6518 -0.63787819149720659 6.3686115870334152 4.1745339553813894 165 153 127 0.39675831540794004 194 687 195 639 200 493 192 906
6519 5.0591463806439645 2.9702972620857064 5.765410802681564 167 153 127 0.17104431879710483 181 231 182 252 200 522
6520 -0.75400999541213454 6.5844234479998089 4.1351239623037319 189 175 149 0.37296535350842858 195 635 196 610 197 622 198 536 200 539
6521 2.282693512224339 4.6295010461349921 4.341117938277046 95 84 66 0.46493189498144855 189 531 190 497 199 540 200 562 188 499 191 562
6522 -0.37711992461789889 6.5320995361002598 3.8954817835221749 167 153 126 0.62681599688522593 190 819 191 626 192 648 200 587 193 677 194 727 195 670
6523 1.0983719275169439 5.8316644360644956 4.2689435954445853 165 149 123 0.31362398532208713 197 655 198 866 199 855 200 599
6524 2.0664454030918664 5.0180542870666622 4.697530475715797 179 165 141 1.9363229512213367 155 471 182 419 200 607 156 283 186 421 184 718
6525 -0.46211123144243454 6.9528001873127812 3.4112530660024269 165 153 129 0.15951251491408203 195 691 198 608 200 619
6526 -0.03484881140978232 6.6535075002030046 3.8543952217037418 167 153 127 0.6523958146966512 196 928 200 622 194 1061 195 961 197 940 198 878 192 1078 191 1046 193 1127 191 932 193 688
6527 0.91441336729541323 5.9990204234533664 3.9537842101498581 169 155 128 0.22656202143392287 197 653 200 626 198 598
6528 4.9732778462628042 3.8808774804021446 5.0266751052593461 131 115 89 0.11008846221451607 193 641 194 741 200 644
6529 4.9732778462628042 3.8808774804021446 5.0266751052593461 131 115 89 0.11008846221451607 193 642 194 742 200 645
6530 4.0503149630048574 4.5398969361371675 4.7270170805205183 147 131 108 0.23880281167380132 197 679 198 614 199 621 200 650
6532 1.5078688125126276 2.4982342288025636 2.347257238266613 60 49 37 0.79495638623451437 195 89 199 638 200 672 179 53
6533 1.4356196555808935 1.1982588598939463 7.9565950883541268 160 142 120 0.4194271121897466 169 826 192 692 200 677
6534 1.77552301037181 2.8651832543551685 2.3599309028346962 86 86 84 0.15179331604180263 196 172 198 680 200 693
6535 1.9028878820860249 2.8055476806303603 2.45875078947503 70 71 66 0.22141191247013703 194 1093 195 1012 200 695
6536 1.9028878820860249 2.8055476806303603 2.45875078947503 70 71 66 0.22141191247013703 194 1094 195 1013 200 696
6537 -2.879002696266856 5.5217498982007935 5.223581174780878 167 155 129 0.28862804773682982 194 348 197 270 198 706 199 673 200 701
6538 2.6661048015428293 2.4185852177291736 6.8416336596107881 154 139 116 0.31563024318446203 195 762 196 269 197 764 198 243 200 713 194 269 193 773
6539 -1.6901502646529398 5.1080123435225531 5.474983064764336 188 175 149 0.26279058205904293 196 758 197 770 199 222 200 715
6540 2.1900497536921257 3.3056202144508227 3.5147769271297111 104 89 73 2.2497431574795792 191 323 199 277 200 729 196 327
6541 2.3331752498031535 3.3070379502516047 2.8285472946941104 94 84 68 1.5661753698710319 198 303 199 702 200 730
6542 -2.2761164794659949 6.2084983608116415 4.6063733244779064 167 152 129 0.17550025443796646 190 447 200 735 192 464
6543 0.61841175991206077 4.6281364249204051 5.2965570555679671 192 178 151 0.26851207366682978 197 402 198 742 199 353 200 749
